3513769.18402864,5404733.43670347,225.569283598472,255,251,0,27
3513788.95471303,5404759.64695274,225.274667598472,255,219,0,27
3513813.50647164,5404792.26933116,224.852364598472,255,191,0,27
3513841.13369926,5404828.96982774,224.265023598472,255,163,0,27
3513863.86452356,5404859.1152606,223.631326598472,255,147,0,27
3513887.98038619,5404891.03554563,222.727212598472,255,131,0,27
3513908.40517263,5404917.9686136,221.736276598472,255,120,0,27
3513931.63957009,5404948.38697554,220.346353598472,255,104,0,27
3513951.55370523,5404974.17548512,218.946542598472,255,92,0,27
3513971.32801001,5404999.49719816,217.411050598472,255,76,0,27
3513987.19682261,5405019.59207686,216.111520598472,255,68,0,27
3514007.33676523,5405044.74529342,214.430123598472,255,56,0,27
3514028.82514634,5405071.09261535,212.660012598472,255,44,0,27
3514051.19637148,5405097.95300689,210.918221598472,255,24,0,27
3514070.50250086,5405120.60338364,209.553811598472,255,16,0,27
3514092.96366998,5405146.23893895,208.191506598472,255,12,0,27
3514115.3739062,5405171.01495647,207.074807598472,255,4,0,27
3514136.17002977,5405193.27397084,206.225015598472,255,0,0,27
3514154.74573906,5405212.54919258,205.591256598472,255,0,0,27
3514178.12980981,5405236.07896975,204.914742598472,251,0,0,27
3514199.03210546,5405256.49891959,204.388650598472,255,0,0,27
3514223.62426108,5405279.88436919,203.850442598472,255,0,0,27
3514248.61745231,5405303.02588818,203.373818598472,255,4,0,27
3514272.45501892,5405324.55639164,202.959084598472,255,8,0,27
3514297.59736725,5405346.7125149,202.546456598472,255,12,0,27
3514325.24082298,5405370.47171994,202.122903598472,255,16,0,27
3514353.43894741,5405394.18551458,201.732095598472,255,16,0,27
3514380.66687183,5405416.73162844,201.428658598472,255,16,0,27
3514403.37422725,5405435.40452955,201.274301598472,255,16,0,27
3514418.76950459,5405448.06944133,201.239510598472,255,12,0,27
3514440.72658436,5405466.23894605,201.316110598472,255,12,0,27
3514463.52490906,5405485.2728181,201.557168598472,255,16,0,27
3514486.24606721,5405504.38248493,201.948708598472,255,20,0,27
3514513.87381102,5405527.72511922,202.638253598472,255,28,0,27
3514544.97131367,5405554.11940011,203.735085598472,255,32,0,27
3514570.24037554,5405575.70169207,204.915658598472,255,36,0,27
3514593.99180947,5405596.10231668,206.282144598472,255,44,0,27
3514620.68094682,5405619.14336286,208.103097598472,255,52,0,27
3514642.96878993,5405638.52025948,209.846810598472,255,64,0,27
3514670.75950064,5405662.87107955,212.253182598472,255,80,0,27
3514693.96265105,5405683.37941774,214.400674598472,255,88,0,27
3514712.43444392,5405699.83208134,216.161141598472,255,100,0,27
3514736.59657255,5405721.54350514,218.469949598472,255,112,0,27
3514759.78003711,5405742.6204986,220.632455598472,255,131,0,27
3514787.26708788,5405767.94479257,223.045388598472,255,143,0,27
3514814.65383556,5405793.59519713,225.196664598472,255,151,0,27
3514840.69819052,5405818.39969691,226.937753598472,255,155,0,27
3514862.84688915,5405839.78846789,228.139230598472,255,159,0,27
3514888.49453599,5405864.89024243,229.167184598472,255,159,0,27
3514914.62191943,5405890.7904466,229.785958598472,255,159,0,27
3514938.12890655,5405914.32194204,229.968606598472,255,155,0,27
3514961.37693703,5405937.72224089,229.798318598472,255,139,0,27
3514983.06609404,5405959.60578156,229.348702598472,255,128,0,27
3515006.54114115,5405983.33425574,228.596719598472,255,116,0,27
3515030.58709213,5406007.64501821,227.590829598472,255,100,0,27
3515053.97080933,5406031.23279228,226.461007598472,255,92,0,27
3515081.58492012,5406058.93737032,225.047616598472,255,76,0,27
3515105.49414494,5406082.72539703,223.854318598472,255,64,0,27
3515124.85412049,5406101.83574976,222.977670598472,255,60,0,27
3515145.98118418,5406122.51430975,222.185647598472,255,52,0,27
3515177.28343667,5406152.7634964,221.446664598472,255,52,0,27
3515205.55734173,5406179.66048071,221.284493598472,255,56,0,27
3515228.44561042,5406201.14454847,221.542916598472,255,64,0,27
3515257.03855499,5406227.73218063,222.341195598472,255,76,0,27
3515261.6209322,5406231.97274243,222.509011598472,255,80,0,27
3513665.49707223,5404634.54205013,226.477181598472,24,255,231,28
3513672.30505389,5404641.74397512,226.515603598472,36,255,219,28
3513686.10105368,5404657.439292,226.638223598472,72,255,183,28
3513710.04186495,5404686.91474119,226.711617598472,151,255,104,28
3513733.8229903,5404717.36918679,226.596383598472,219,255,36,28
3513754.18304112,5404743.71684813,226.400918598472,255,247,0,28
3513778.53541683,5404775.36195548,226.095590598472,255,207,0,28
3513801.10603901,5404804.78715766,225.766885598472,255,179,0,28
3513828.26732569,5404840.30080378,225.287606598472,255,155,0,28
3513849.41198927,5404868.00036136,224.798013598472,255,139,0,28
3513873.90039818,5404900.10985402,224.024209598472,255,120,0,28
3513898.62669195,5404932.4979609,222.982278598472,255,104,0,28
3513919.76134997,5404960.0573487,221.863503598472,255,88,0,28
3513941.17998206,5404987.75880839,220.512277598472,255,72,0,28
3513964.14265253,5405017.11789609,218.875894598472,255,52,0,28
3513981.30571096,5405038.78771373,217.577462598472,255,40,0,28
3514000.42538334,5405062.5985305,216.118600598472,255,24,0,28
3514020.68737967,5405087.41942808,214.615304598472,255,8,0,28
3514039.86678844,5405110.47376787,213.270455598472,251,0,0,28
3514061.24606297,5405135.57330089,211.929727598472,239,0,0,28
3514086.39599856,5405164.18005525,210.629189598472,231,0,0,28
3514105.94259374,5405185.68535036,209.814126598472,223,0,0,28
3514128.70915521,5405209.91377025,209.049722598472,219,0,0,28
3514148.96096919,5405230.72214798,208.518319598472,219,0,0,28
3514171.73891508,5405253.43795332,208.030801598472,211,0,0,28
3514191.59660896,5405272.75253263,207.658181598472,215,0,0,28
3514215.31540992,5405295.29121479,207.259866598472,215,0,0,28
3514240.30721522,5405318.50938415,206.874215598472,219,0,0,28
3514260.76704587,5405337.12065384,206.571481598472,223,0,0,28
3514284.52210727,5405358.27101669,206.215218598472,223,0,0,28
3514309.52668292,5405380.00143338,205.823098598472,227,0,0,28
3514331.44561427,5405398.64515927,205.464089598472,227,0,0,28
3514350.05757692,5405414.22947453,205.159890598472,227,0,0,28
3514369.27341583,5405430.13005744,204.863778598472,223,0,0,28
3514386.7225131,5405444.46311896,204.629891598472,219,0,0,28
3514399.85077073,5405455.23217139,204.491921598472,215,0,0,28
3514416.21918963,5405468.72140704,204.385293598472,215,0,0,28
3514430.78876423,5405480.82647409,204.364236598472,219,0,0,28
3514451.61958553,5405498.30026353,204.457040598472,219,0,0,28
3514468.23952938,5405512.32724681,204.620065598472,223,0,0,28
3514492.79733375,5405533.07330722,205.005044598472,231,0,0,28
3514513.52854492,5405550.56729869,205.483926598472,243,0,0,28
3514537.93719926,5405571.16833858,206.251656598472,247,0,0,28
3514566.01016579,5405594.95516321,207.447640598472,247,0,0,28
3514589.925599,5405615.28085571,208.737802598472,255,16,0,28
3514615.28200977,5405636.89249967,210.367349598472,255,20,0,28
3514638.53245148,5405656.79696866,212.078744598472,255,48,0,28
3514668.89040528,5405682.98270962,214.567056598472,255,56,0,28
3514689.09870392,5405700.61083218,216.350289598472,255,64,0,28
3514712.92955302,5405721.60254856,218.506722598472,255,96,0,28
3514738.28492434,5405744.18403897,220.794900598472,255,112,0,28
3514762.32241125,5405765.87164034,222.886514598472,255,131,0,28
3514786.83981861,5405788.30363424,224.874185598472,255,143,0,28
3514814.19514954,5405813.79694088,226.843484598472,255,151,0,28
3514839.80307819,5405838.10701746,228.382363598472,255,155,0,28
3514863.81622649,5405861.24284423,229.511025598472,255,159,0,28
3514890.09588536,5405886.94520699,230.351357598472,255,151,0,28
3514915.72521814,5405912.38292797,230.749398598472,255,143,0,28
3514932.21258654,5405928.89411173,230.790414598472,255,143,0,28
3514956.50401671,5405953.34401867,230.550607598472,255,124,0,28
3514979.51933835,5405976.60136882,230.009927598472,255,112,0,28
3515005.02162524,5406002.45962741,229.112008598472,255,100,0,28
3515029.18771367,5406026.98031574,228.039987598472,255,84,0,28
3515055.49292031,5406053.58659431,226.724648598472,255,64,0,28
3515080.91337374,5406079.12133034,225.415872598472,255,44,0,28
3515107.32284328,5406105.39891032,224.149880598472,255,24,0,28
3515130.69414369,5406128.42044743,223.202218598472,255,20,0,28
3515156.06314802,5406153.12136314,222.455758598472,255,12,0,28
3515184.8463326,5406180.75894988,222.050698598472,255,8,0,28
3515212.65257845,5406207.07329942,222.149728598472,255,12,0,28
3515239.87429448,5406232.5275879,222.728646598472,255,28,0,28
3515250.81926094,5406242.70951543,223.058724598472,255,36,0,28
3513659.929469,5404657.53631412,226.600015598472,84,255,171,29
3513682.27618582,5404683.07157341,226.911080598472,124,255,131,29
3513701.54657802,5404706.64432853,227.052560598472,183,255,72,29
3513722.45387292,5404732.91880432,227.053048598472,231,255,24,29
3513745.59055529,5404762.26683994,226.907021598472,255,231,0,29
3513767.32666419,5404789.98090028,226.676888598472,255,199,0,29
3513789.4969508,5404818.38601607,226.392526598472,255,175,0,29
3513812.98304999,5404848.62553656,226.034127598472,255,151,0,29
3513831.07883175,5404872.01357418,225.688485598472,255,139,0,29
3513853.83952424,5404901.51077398,225.128823598472,255,120,0,29
3513879.45125005,5404934.76464118,224.293282598472,255,104,0,29
3513900.75163975,5404962.3979075,223.394265598472,255,88,0,29
3513921.36321553,5404989.03957677,222.327554598472,255,72,0,29
3513944.05830971,5405018.13073463,220.945229598472,255,52,0,29
3513963.91045987,5405043.27963784,219.613870598472,255,36,0,29
3513983.82494857,5405068.18045971,218.241616598472,255,20,0,29
3514006.15284928,5405095.62659729,216.732278598472,255,0,0,29
3514028.19969625,5405122.14811497,215.336831598472,243,0,0,29
3514055.57694749,5405154.06804645,213.858010598472,227,0,0,29
3514078.12184513,5405179.45725283,212.875070598472,219,0,0,29
3514099.71501946,5405202.98391166,212.128610598472,215,0,0,29
3514127.36295825,5405231.89208443,211.427682598472,211,0,0,29
3514150.14212743,5405254.76860808,211.000985598472,203,0,0,29
3514167.81341179,5405272.05457581,210.729562598472,199,0,0,29
3514190.73464579,5405294.062242,210.414926598472,195,0,0,29
3514208.14956151,5405310.50385352,210.195870598472,199,0,0,29
3514231.80242477,5405332.47077621,209.909371598472,199,0,0,29
3514253.57357788,5405352.3156856,209.638131598472,203,0,0,29
3514275.22682801,5405371.65563589,209.341927598472,207,0,0,29
3514298.45363114,5405391.92971667,208.971902598472,211,0,0,29
3514318.11520188,5405408.72039145,208.622750598472,207,0,0,29
3514338.84019758,5405426.10562283,208.230630598472,207,0,0,29
3514352.95126293,5405437.78186498,207.953256598472,203,0,0,29
3514367.25377744,5405449.49798087,207.671121598472,203,0,0,29
3514380.9603565,5405460.63784717,207.409066598472,195,0,0,29
3514396.14070873,5405472.97872727,207.152108598472,191,0,0,29
3514410.44735982,5405484.73696551,206.977426598472,191,0,0,29
3514424.84861472,5405496.73067739,206.880105598472,191,0,0,29
3514440.69482112,5405510.03398638,206.850991598472,195,0,0,29
3514457.30492204,5405524.01626637,206.894875598472,203,0,0,29
3514478.69645781,5405541.99034093,207.056375598472,223,0,0,29
3514500.78560391,5405560.46178731,207.362130598472,251,0,0,29
3514523.22399006,5405579.15090945,207.842874598472,255,16,0,29
3514545.86228236,5405597.96399449,208.529275598472,255,28,0,29
3514567.01610296,5405615.58918255,209.365487598472,255,28,0,29
3514591.85235891,5405636.33920983,210.598062598472,255,48,0,29
3514616.91667094,5405657.28103275,212.100625598472,255,76,0,29
3514644.63677704,5405680.62522268,214.053811598472,255,76,0,29
3514673.14409098,5405704.98657157,216.321420598472,255,84,0,29
3514700.08441387,5405728.3198862,218.590981598472,255,112,0,29
3514726.19609246,5405751.23681393,220.821328598472,255,124,0,29
3514754.54543874,5405776.52744255,223.180642598472,255,143,0,29
3514778.95029591,5405798.66457999,225.083291598472,255,155,0,29
3514803.76895197,5405821.57356691,226.808846598472,255,163,0,29
3514828.49921261,5405844.81054531,228.260293598472,255,163,0,29
3514853.38070925,5405868.5461047,229.416116598472,255,167,0,29
3514877.2952798,5405891.70937429,230.198678598472,255,159,0,29
3514904.52217185,5405918.5050302,230.666207598472,255,147,0,29
3514923.41310226,5405937.3006709,230.724954598472,255,143,0,29
3514947.87544722,5405961.82204513,230.485513598472,255,124,0,29
3514971.88600751,5405986.02526373,229.926827598472,255,112,0,29
3514997.54002537,5406011.97138741,229.023934598472,255,100,0,29
3515022.32087951,5406037.0609078,227.922311598472,255,80,0,29
3515048.78196784,5406063.75918803,226.599038598472,255,60,0,29
3515074.58065976,5406089.60898963,225.274362598472,255,40,0,29
3515100.99755392,5406115.84599582,224.016061598472,255,24,0,29
3515124.34296007,5406138.80573179,223.073586598472,255,12,0,29
3515146.80516157,5406160.66475707,222.387155598472,255,0,0,29
3515172.75870987,5406185.61391675,221.939645598472,247,0,0,29
3515199.9023896,5406211.36237581,221.902169598472,251,0,0,29
3515226.12973672,5406235.96110044,222.296700598472,255,4,0,29
3515242.36418716,5406251.11555842,222.675637598472,255,16,0,29
3513646.70971882,5404672.33186591,226.387673598472,151,255,104,30
3513668.71478992,5404696.90745401,226.816476598472,151,255,104,30
3513690.68084995,5404723.11131812,227.128427598472,203,255,52,30
3513711.09251956,5404748.1492197,227.218728598472,251,255,4,30
3513733.02491423,5404775.40666584,227.155251598472,255,223,0,30
3513755.06779434,5404803.01801185,226.972543598472,255,195,0,30
3513778.33895428,5404832.34412715,226.701638598472,255,167,0,30
3513803.93549851,5404864.79386546,226.334542598472,255,143,0,30
3513827.11413353,5404894.35372905,225.921456598472,255,128,0,30
3513852.2566445,5404926.59044436,225.345193598472,255,108,0,30
3513876.07299083,5404957.24445671,224.621591598472,255,92,0,30
3513897.17346024,5404984.41852081,223.798806598472,255,76,0,30
3513920.06691202,5405013.797457,222.705056598472,255,56,0,30
3513945.87147292,5405046.60335084,221.260537598472,255,36,0,30
3513967.19844277,5405073.3630928,219.968362598472,255,20,0,30
3513989.44279174,5405100.80923038,218.616555598472,255,0,0,30
3514012.67718213,5405128.84180697,217.297982598472,243,0,0,30
3514036.1475694,5405156.40118063,216.143411598472,227,0,0,30
3514065.12996717,5405189.2257138,215.016763598472,219,0,0,30
3514088.50713656,5405214.62338425,214.341439598472,211,0,0,30
3514114.24402028,5405241.36051293,213.806191598472,207,0,0,30
3514137.24571597,5405264.24687951,213.460153598472,199,0,0,30
3514154.36594493,5405280.82953762,213.253396598472,195,0,0,30
3514171.71837363,5405297.40304577,213.073281598472,191,0,0,30
3514192.53831963,5405317.04527714,212.880319598472,191,0,0,30
3514214.97152268,5405337.94411504,212.678781598472,191,0,0,30
3514235.27909203,5405356.60303665,212.481240598472,195,0,0,30
3514258.73566951,5405377.7618565,212.204507598472,199,0,0,30
3514280.07230551,5405396.56526831,211.883248598472,203,0,0,30
3514296.64322565,5405410.84982938,211.579019598472,203,0,0,30
3514317.26429079,5405428.26648459,211.136483598472,199,0,0,30
3514333.25775218,5405441.53198458,210.755746598472,199,0,0,30
3514346.56468155,5405452.402026,210.409951598472,195,0,0,30
3514361.15722298,5405464.0967307,209.990579598472,191,0,0,30
3514372.92633654,5405473.36921991,209.625497598472,183,0,0,30
3514382.70377777,5405481.04294776,209.318765598472,171,0,0,30
3514392.29494587,5405488.6505682,209.025979598472,167,0,0,30
3514405.28683089,5405499.18863713,208.679666598472,167,0,0,30
3514418.30909322,5405509.95664304,208.410592598472,187,0,0,30
3514434.04721835,5405523.07178385,208.161599598472,219,0,0,30
3514451.16262485,5405537.33943092,207.962594598472,251,0,0,30
3514471.67148629,5405554.299281,207.805978598472,255,48,0,30
3514500.8348044,5405578.28705831,207.811929598472,255,52,0,30
3514522.64480596,5405596.25526388,208.063302598472,255,40,0,30
3514545.30536505,5405614.98807107,208.540109598472,255,48,0,30
3514566.62836096,5405632.65883217,209.189858598472,255,52,0,30
3514591.60100366,5405653.46445219,210.251779598472,255,52,0,30
3514622.35635148,5405679.24173998,211.952004598472,255,80,0,30
3514659.23777547,5405710.55814875,214.443826598472,255,80,0,30
3514690.74666577,5405737.80816319,216.808663598472,255,92,0,30
3514723.92181785,5405767.02068886,219.358407598472,255,108,0,30
3514756.44924597,5405796.21939767,221.786599598472,255,124,0,30
3514789.86090405,5405826.81126947,224.008065598472,255,139,0,30
3514820.58810902,5405855.50588186,225.714913598472,255,143,0,30
3514851.35934553,5405884.75794187,227.012765598472,255,143,0,30
3514882.30458687,5405914.68947493,227.782083598472,255,131,0,30
3514917.22799682,5405948.9727694,227.983529598472,255,128,0,30
3514945.88032422,5405977.36683312,227.637399598472,255,108,0,30
3514978.67308709,5406010.07328654,226.733743598472,255,88,0,30
3515012.09665992,5406043.50306777,225.377603598472,255,68,0,30
3515045.25593038,5406076.5922498,223.793710598472,255,36,0,30
3515078.30971465,5406109.37051698,222.207223598472,255,12,0,30
3515113.49967557,5406143.91896235,220.739022598472,251,0,0,30
3515146.98521924,5406176.35938805,219.776803598472,235,0,0,30
3515179.49866079,5406207.4026839,219.399880598472,223,0,0,30
3515206.58675485,5406232.95744519,219.536202598472,231,0,0,30
3515234.38299514,5406259.04910559,219.892800598472,223,0,0,30
3513635.43105453,5404688.6220788,225.834359598472,223,255,32,31
3513661.32953335,5404716.90773597,226.402261598472,239,255,16,31
3513685.3476809,5404744.80910183,226.813577598472,255,251,0,31
3513711.54688517,5404776.4214065,226.996530598472,255,219,0,31
3513735.77168467,5404806.22916759,226.935250598472,255,191,0,31
3513758.82567797,5404834.81433398,226.737496598472,255,167,0,31
3513786.29408235,5404869.0810468,226.399148598472,255,143,0,31
3513806.65672118,5404894.6461672,226.097634598472,255,128,0,31
3513829.5905629,5404923.63012768,225.692880598472,255,108,0,31
3513846.82024493,5404945.52436687,225.319039598472,255,96,0,31
3513861.52792455,5404964.27685285,224.929727598472,255,88,0,31
3513878.88812435,5404986.45110633,224.380502598472,255,76,0,31
3513900.13395369,5405013.58304808,223.578988598472,255,60,0,31
3513920.97582708,5405040.10283335,222.643502598472,255,44,0,31
3513945.38602997,5405070.88114092,221.405404598472,255,24,0,31
3513965.8412008,5405096.33750831,220.318551598472,255,12,0,31
3513987.15746505,5405122.39877018,219.213998598472,251,0,0,31
3514013.23289027,5405153.46641171,218.002114598472,235,0,0,31
3514041.8574213,5405186.41748872,216.944467598472,223,0,0,31
3514067.33622518,5405214.57349787,216.245736598472,215,0,0,31
3514093.27768196,5405241.86494877,215.736672598472,211,0,0,31
3514119.6645453,5405268.14649562,215.364297598472,199,0,0,31
3514134.07323189,5405281.98997763,215.195870598472,191,0,0,31
3514147.73734212,5405294.93248538,215.057443598472,187,0,0,31
3514167.95599987,5405313.91128796,214.895364598472,179,0,0,31
3514188.81582669,5405333.35517588,214.761910598472,183,0,0,31
3514202.27502444,5405345.83795816,214.672921598472,183,0,0,31
3514217.30449422,5405359.69145279,214.558724598472,187,0,0,31
3514238.07869041,5405378.606043,214.355813598472,191,0,0,31
3514258.08812234,5405396.46721381,214.080148598472,199,0,0,31
3514276.96110638,5405412.92091686,213.729043598472,195,0,0,31
3514293.68497372,5405427.14504859,213.332833598472,199,0,0,31
3514313.59599759,5405443.68109422,212.755349598472,195,0,0,31
3514328.08702677,5405455.46523379,212.256417598472,191,0,0,31
3514338.25496772,5405463.60127512,211.856759598472,191,0,0,31
3514348.40840592,5405471.57987913,211.383401598472,195,0,0,31
3514358.5746286,5405479.27777589,210.758767598472,191,0,0,31
3514365.35549979,5405484.27085487,210.241403598472,167,0,0,31
3514373.00954886,5405490.01178411,209.620248598472,139,0,0,31
3514380.4365813,5405495.82607569,209.048623598472,135,0,0,31
3514391.25120676,5405504.67855054,208.341012598472,171,0,0,31
3514404.38222918,5405515.879525,207.645303598472,247,0,0,31
3514418.51814934,5405528.20832064,207.047250598472,255,0,0,31
3514435.61749745,5405542.97953381,206.416024598472,255,84,0,31
3514459.49667729,5405563.22098869,205.830514598472,255,64,0,31
3514496.15833956,5405593.87948409,205.621346598472,255,80,0,31
3514532.78529703,5405624.23915616,206.004373598472,255,72,0,31
3514569.26775723,5405654.46987318,207.059548598472,255,80,0,31
3514601.35893582,5405681.33854493,208.524148598472,255,84,0,31
3514633.97924949,5405709.00461393,210.426644598472,255,88,0,31
3514665.26803159,5405735.86293365,212.530435598472,255,104,0,31
3514695.86541883,5405762.52600704,214.737283598472,255,120,0,31
3514728.08987998,5405791.05679692,217.066354598472,255,131,0,31
3514762.94285503,5405822.54134153,219.401589598472,255,124,0,31
3514791.62366469,5405848.99897919,221.064492598472,255,135,0,31
3514822.43857211,5405877.91595544,222.514321598472,255,143,0,31
3514858.77222168,5405912.59266998,223.653176598472,255,139,0,31
3514887.5377993,5405940.44674454,224.055276598472,255,131,0,31
3514916.64242048,5405968.91745863,224.001656598472,255,124,0,31
3514950.31112602,5406002.12903378,223.393502598472,255,104,0,31
3514983.26962765,5406034.78231983,222.312448598472,255,84,0,31
3515014.45155178,5406065.69113104,220.974465598472,255,60,0,31
3515047.50448045,5406098.39982598,219.418710598472,255,28,0,31
3515081.38707872,5406131.72689288,217.888864598472,255,12,0,31
3515111.91593316,5406161.47060424,216.737344598472,247,0,0,31
3515143.28343746,5406191.6863023,215.934274598472,231,0,0,31
3515178.18233202,5406224.88717892,215.607217598472,227,0,0,31
3515214.48059797,5406259.05998089,215.889413598472,235,0,0,31
3515224.71793439,5406268.6561553,216.054055598472,227,0,0,31
3513623.65140509,5404705.00482368,226.290017598472,211,255,44,32
3513650.08884777,5404734.05731695,227.036904598472,247,255,8,32
3513681.54836788,5404770.70343701,227.626046598472,255,235,0,32
3513706.9826311,5404801.37816758,227.780648598472,255,207,0,32
3513725.05165595,5404823.45643131,227.738168598472,255,191,0,32
3513748.15209203,5404851.86914851,227.551248598472,255,167,0,32
3513770.15733284,5404879.09413844,227.284097598472,255,151,0,32
3513787.9042352,5404901.17482755,227.037972598472,255,135,0,32
3513808.34145258,5404926.72958884,226.722329598472,255,120,0,32
3513831.70376566,5404956.11991651,226.292336598472,255,104,0,32
3513848.33959113,5404977.15652003,225.917794598472,255,92,0,32
3513870.9671849,5405005.86633521,225.299874598472,255,76,0,32
3513893.99752548,5405035.10664311,224.529794598472,255,64,0,32
3513917.26489533,5405064.52943405,223.601907598472,255,44,0,32
3513939.71605182,5405092.65540531,222.604989598472,255,28,0,32
3513958.14191811,5405115.44164556,221.764687598472,255,16,0,32
3513974.54744597,5405135.44071837,221.043008598472,255,4,0,32
3514001.63658655,5405167.69296881,219.981332598472,243,0,0,32
3514029.67605743,5405199.87772592,219.120614598472,231,0,0,32
3514049.84517528,5405222.17264717,218.662789598472,231,0,0,32
3514068.62045131,5405242.11630402,218.347146598472,231,0,0,32
3514089.4844147,5405263.17258632,218.064523598472,227,0,0,32
3514104.20331612,5405277.31730288,217.873025598472,219,0,0,32
3514119.76346246,5405291.74049223,217.674081598472,203,0,0,32
3514132.65866478,5405303.45315745,217.521096598472,195,0,0,32
3514148.84650982,5405318.11664998,217.367623598472,183,0,0,32
3514167.05346999,5405334.71190166,217.239541598472,183,0,0,32
3514181.56245968,5405347.98966288,217.146279598472,183,0,0,32
3514194.05455456,5405359.41143851,217.053201598472,187,0,0,32
3514209.08178988,5405373.11836405,216.914498598472,191,0,0,32
3514224.34258257,5405386.94941512,216.727609598472,203,0,0,32
3514242.94591852,5405403.53879781,216.412148598472,207,0,0,32
3514259.54134698,5405417.97009768,216.026284598472,207,0,0,32
3514273.29091813,5405429.62666105,215.604531598472,207,0,0,32
3514289.58596056,5405443.14333951,214.981149598472,203,0,0,32
3514301.46089971,5405452.81513192,214.425179598472,199,0,0,32
3514316.32844204,5405464.65744517,213.573800598472,203,0,0,32
3514327.70585379,5405473.52683401,212.760751598472,195,0,0,32
3514336.96540294,5405480.68612047,211.964181598472,211,0,0,32
3514345.23902605,5405487.03454636,211.006204598472,243,0,0,32
3514347.49966764,5405488.739996,210.664651598472,255,12,0,32
3514352.11916088,5405491.91523778,209.656960598472,235,0,0,32
3514357.60787221,5405495.66138344,208.114907598472,199,0,0,32
3514362.16212072,5405499.14668448,206.941079598472,255,44,0,32
3514366.50609688,5405502.77250886,206.096230598472,255,8,0,32
3514374.52180985,5405510.0251829,204.993661598472,255,72,0,32
3514383.19492,5405518.49492914,204.225564598472,255,52,0,32
3514390.65458541,5405526.00776898,203.888406598472,255,124,0,32
3514398.99795753,5405534.41536054,203.765725598472,255,108,0,32
3514412.23532174,5405547.16831418,203.820443598472,255,88,0,32
3514430.80827331,5405563.91618072,203.926339598472,255,124,0,32
3514454.2349826,5405584.04386918,204.006844598472,255,104,0,32
3514487.68082929,5405612.04449868,204.271066598472,255,100,0,32
3514517.12311517,5405636.57157219,204.805825598472,255,84,0,32
3514552.3324084,5405666.19582493,205.933022598472,255,68,0,32
3514586.83977086,5405695.48966081,207.543008598472,255,92,0,32
3514619.24877981,5405723.17092554,209.430978598472,255,92,0,32
3514654.55629724,5405753.64918649,211.793282598472,255,112,0,32
3514687.96916447,5405782.8415172,214.180459598472,255,131,0,32
3514727.65899032,5405818.08567786,216.966744598472,255,155,0,32
3514758.12292529,5405845.64177762,218.905068598472,255,159,0,32
3514789.59159536,5405874.64110352,220.565377598472,255,147,0,32
3514823.30536481,5405906.28084393,221.867104598472,255,155,0,32
3514852.21490938,5405933.83004233,222.545602598472,255,147,0,32
3514883.50110347,5405963.98273011,222.794778598472,255,151,0,32
3514916.85337872,5405996.432129,222.495858598472,255,135,0,32
3514943.07571952,5406022.11999607,221.890878598472,255,108,0,32
3514977.29063677,5406055.74174972,220.686624598472,255,96,0,32
3515012.5294517,5406090.39464183,219.126077598472,255,60,0,32
3515041.77131523,5406119.07683035,217.757211598472,255,40,0,32
3515071.98632033,5406148.55227246,216.401895598472,255,28,0,32
3515100.92919084,5406176.58191456,215.306619598472,255,4,0,32
3515127.83671104,5406202.42842104,214.579141598472,243,0,0,32
3515161.9855138,5406234.9244324,214.133553598472,231,0,0,32
3515194.47582589,5406265.55168783,214.215432598472,243,0,0,32
3515211.63628216,5406281.66046419,214.386208598472,239,0,0,32
3513603.97999142,5404712.76004559,226.510110598472,215,255,40,33
3513626.31255196,5404736.82480561,227.109536598472,227,255,28,33
3513655.27768926,5404769.80298602,227.869546598472,255,251,0,33
3513685.72661235,5404805.84419037,228.309670598472,255,215,0,33
3513707.84907733,5404832.53868052,228.374612598472,255,195,0,33
3513734.162048,5404864.63797669,228.233071598472,255,171,0,33
3513754.06047123,5404889.06010141,228.012643598472,255,155,0,33
3513772.39743298,5404911.65937556,227.767831598472,255,139,0,33
3513797.16618852,5404942.32633503,227.412057598472,255,120,0,33
3513820.6056823,5404971.52245583,227.031869598472,255,104,0,33
3513844.17739798,5405001.07109057,226.571206598472,255,92,0,33
3513866.56036109,5405029.25558198,226.033303598472,255,76,0,33
3513887.28553357,5405055.37450842,225.429421598472,255,64,0,33
3513910.95514111,5405085.0893981,224.619424598472,255,44,0,33
3513930.86651853,5405109.87766271,223.864541598472,255,28,0,33
3513947.20696429,5405129.98567239,223.230111598472,255,20,0,33
3513961.90756577,5405147.85064744,222.679513598472,255,12,0,33
3513983.08279758,5405173.13489089,221.960305598472,255,0,0,33
3514013.05766921,5405207.76811129,221.162454598472,243,0,0,33
3514038.01649505,5405235.37582984,220.716958598472,247,0,0,33
3514056.22018132,5405254.60944541,220.496926598472,247,0,0,33
3514068.1515688,5405266.67238304,220.369271598472,251,0,0,33
3514082.25124266,5405280.20788469,220.190408598472,247,0,0,33
3514097.87215777,5405294.26301082,219.930703598472,231,0,0,33
3514110.39861097,5405305.05968284,219.687325598472,211,0,0,33
3514118.67103906,5405312.10364018,219.518899598472,199,0,0,33
3514128.24184248,5405320.28164123,219.322030598472,187,0,0,33
3514141.58122806,5405331.86880207,219.061807598472,179,0,0,33
3514152.31436653,5405341.36277834,218.862557598472,179,0,0,33
3514168.53846494,5405355.92579806,218.578011598472,179,0,0,33
3514179.71423812,5405366.02536886,218.380410598472,187,0,0,33
3514191.75180476,5405376.92493199,218.152078598472,191,0,0,33
3514206.1516808,5405390.00968841,217.871926598472,195,0,0,33
3514222.775938,5405405.00256542,217.511056598472,215,0,0,33
3514242.81472193,5405422.59546699,216.906625598472,219,0,0,33
3514258.94454886,5405436.18966557,216.215554598472,227,0,0,33
3514275.78684951,5405449.8993559,215.274728598472,219,0,0,33
3514287.94560011,5405459.63226355,214.449014598472,215,0,0,33
3514299.33837728,5405468.63060746,213.496926598472,223,0,0,33
3514311.51162357,5405477.97300832,212.103494598472,227,0,0,33
3514322.84829183,5405486.4878114,210.313271598472,199,0,0,33
3514330.64425016,5405492.66032327,208.842019598472,167,0,0,33
3514336.88702016,5405498.29991704,207.615396598472,175,0,0,33
3514344.65380326,5405506.36432139,206.134988598472,143,0,0,33
3514352.06202666,5405514.06394349,205.096566598472,131,0,0,33
3514358.28235309,5405520.14996206,204.694192598472,139,0,0,33
3514365.15524008,5405526.7984275,204.624978598472,171,0,0,33
3514373.48324677,5405534.79256665,204.877358598472,231,0,0,33
3514382.98500121,5405543.64762952,205.293557598472,255,40,0,33
3514393.8590095,5405553.49860985,205.678353598472,255,80,0,33
3514408.28219178,5405566.32217518,206.061837598472,255,104,0,33
3514425.45076564,5405580.96581215,206.380135598472,255,163,0,33
3514450.97877001,5405602.14240866,206.696145598472,255,128,0,33
3514487.13444081,5405632.01076881,207.263406598472,255,112,0,33
3514515.38124954,5405655.29160904,207.969277598472,255,108,0,33
3514550.50007552,5405684.54918449,209.304574598472,255,96,0,33
3514581.20121654,5405710.26812183,210.872231598472,255,112,0,33
3514617.64604451,5405741.02191401,213.112832598472,255,120,0,33
3514650.14482774,5405768.81504303,215.391305598472,255,139,0,33
3514686.02151663,5405799.94293006,218.020211598472,255,163,0,33
3514718.91026924,5405828.95916996,220.348031598472,255,175,0,33
3514747.01879617,5405854.15502506,222.148477598472,255,191,0,33
3514776.43450898,5405880.99504485,223.741342598472,255,175,0,33
3514811.61099952,5405913.73050379,225.155190598472,255,183,0,33
3514848.21016062,5405948.37096496,225.982949598472,255,179,0,33
3514883.899544,5405982.62991375,226.093301598472,255,179,0,33
3514918.3568433,5406016.04864289,225.570352598472,255,147,0,33
3514944.30918245,5406041.38226361,224.822701598472,255,135,0,33
3514977.29409452,5406073.68596315,223.518136598472,255,108,0,33
3515014.32691007,5406109.95746511,221.779275598472,255,80,0,33
3515044.13208315,5406139.03964979,220.316506598472,255,72,0,33
3515073.22307131,5406167.26021779,219.018502598472,255,32,0,33
3515107.98178902,5406200.70139758,217.832375598472,255,16,0,33
3515138.65409422,5406229.91495563,217.200356598472,251,0,0,33
3515170.35772173,5406259.84148237,217.021676598472,255,4,0,33
3515202.86132742,5406290.38363043,217.086373598472,255,0,0,33
3513591.41693838,5404727.65468425,227.034127598472,223,255,32,34
3513615.69455875,5404753.94176067,227.705178598472,223,255,32,34
3513649.39106066,5404792.51481035,228.595681598472,255,239,0,34
3513679.45760162,5404828.09112735,229.046029598472,255,207,0,34
3513699.23155284,5404851.89400331,229.123300598472,255,191,0,34
3513719.66376391,5404876.71904454,229.044320598472,255,171,0,34
3513743.72179935,5404906.12043137,228.809701598472,255,155,0,34
3513769.87404465,5404938.21299589,228.469338598472,255,131,0,34
3513792.09646624,5404965.58990065,228.159677598472,255,120,0,34
3513810.05915637,5404987.8377003,227.895120598472,255,108,0,34
3513831.18655947,5405014.13720766,227.546761598472,255,96,0,34
3513851.91275725,5405040.04310404,227.151650598472,255,80,0,34
3513873.90126792,5405067.57486518,226.647714598472,255,68,0,34
3513894.2002035,5405092.9409421,226.095162598472,255,52,0,34
3513917.14388108,5405121.40716606,225.386849598472,255,36,0,34
3513936.1375329,5405144.69560062,224.780831598472,255,28,0,34
3513955.9325559,5405168.60032824,224.188607598472,255,20,0,34
3513978.67235338,5405195.47539931,223.598367598472,255,8,0,34
3514006.91950859,5405227.7642496,223.075845598472,255,4,0,34
3514033.36057166,5405256.59179806,222.779183598472,255,12,0,34
3514051.32584981,5405275.03284593,222.615029598472,255,24,0,34
3514067.35159061,5405290.15122732,222.375466598472,255,36,0,34
3514080.39888452,5405301.21531298,222.002480598472,255,28,0,34
3514091.68739174,5405309.94538058,221.510110598472,247,0,0,34
3514103.12884615,5405318.56324448,220.911843598472,199,0,0,34
3514115.2263118,5405328.05256091,220.289864598472,179,0,0,34
3514126.66708032,5405337.50873525,219.775216598472,175,0,0,34
3514138.76920581,5405347.92630611,219.329720598472,175,0,0,34
3514151.68926292,5405359.3579176,218.959817598472,187,0,0,34
3514164.14442562,5405370.47896778,218.652718598472,191,0,0,34
3514174.80523414,5405380.0086883,218.399606598472,195,0,0,34
3514186.63494674,5405390.66449051,218.164071598472,195,0,0,34
3514197.9748889,5405400.97692166,217.988900598472,211,0,0,34
3514212.98641231,5405414.5500626,217.762521598472,235,0,0,34
3514226.51379637,5405426.46504521,217.452584598472,251,0,0,34
3514240.22469585,5405438.05220604,216.924539598472,255,0,0,34
3514253.71721248,5405448.95003676,216.151376598472,251,0,0,34
3514266.13542884,5405458.64306359,215.220773598472,243,0,0,34
3514278.68743688,5405468.3666445,214.064889598472,239,0,0,34
3514287.2826875,5405475.12715101,213.045876598472,247,0,0,34
3514296.15001159,5405482.30058667,211.524087598472,247,0,0,34
3514302.8687281,5405488.09088611,209.835916598472,219,0,0,34
3514309.72314546,5405494.83308563,207.880837598472,171,0,0,34
3514312.91754984,5405498.22948214,207.139291598472,131,0,0,34
3514318.18338819,5405503.73389831,206.510079598472,147,0,0,34
3514323.7784413,5405509.42045104,206.321633598472,215,0,0,34
3514331.24536163,5405516.92810072,206.324685598472,235,0,0,34
3514339.40470921,5405525.26941516,206.518990598472,231,0,0,34
3514346.46041159,5405532.46908448,206.736428598472,255,4,0,34
3514354.02659557,5405539.97174198,207.002664598472,255,44,0,34
3514363.23434208,5405548.73237074,207.358010598472,255,100,0,34
3514372.77942803,5405557.47125596,207.714364598472,255,147,0,34
3514384.62588492,5405568.03297054,208.103524598472,255,163,0,34
3514402.98372753,5405583.97083919,208.559182598472,255,159,0,34
3514426.20465461,5405603.52606814,208.957986598472,255,151,0,34
3514460.11056619,5405631.31315847,209.452340598472,255,135,0,34
3514490.87713579,5405656.33896853,210.067391598472,255,116,0,34
3514523.18273037,5405682.80541674,211.093881598472,255,104,0,34
3514556.11412153,5405710.05957483,212.572701598472,255,112,0,34
3514585.74079257,5405734.78552919,214.260110598472,255,120,0,34
3514620.44910065,5405763.96542188,216.582742598472,255,135,0,34
3514647.04535951,5405786.5924924,218.516152598472,255,143,0,34
3514675.98304692,5405811.56479569,220.660165598472,255,163,0,34
3514710.5192452,5405841.88976297,223.116036598472,255,175,0,34
3514742.8167222,5405870.76461687,225.167306598472,255,191,0,34
3514778.43964461,5405903.237322,227.004067598472,255,187,0,34
3514811.02836475,5405933.52172256,228.175424598472,255,191,0,34
3514838.96840227,5405959.86386846,228.746591598472,255,179,0,34
3514868.34388778,5405987.83791075,228.876382598472,255,183,0,34
3514901.34968778,5406019.54758402,228.456582598472,255,171,0,34
3514932.15561494,5406049.40644065,227.594583598472,255,143,0,34
3514965.48907409,5406081.85187267,226.255105598472,255,120,0,34
3514995.87809109,5406111.46956346,224.817391598472,255,92,0,34
3515025.58917655,5406140.37859183,223.362954598472,255,72,0,34
3515057.84729598,5406171.58538491,221.880166598472,255,44,0,34
3515091.42933851,5406203.81743331,220.629037598472,255,24,0,34
3515125.08130683,5406235.83800729,219.818612598472,255,8,0,34
3515158.08089137,5406266.96279719,219.533059598472,255,8,0,34
3515186.1315911,5406293.24261871,219.648049598472,255,12,0,34
3515193.27136848,5406299.91628543,219.712411598472,255,12,0,34
3513579.69459994,5404744.37544738,227.633950598472,211,255,44,35
3513608.10506853,5404775.32845983,228.626290598472,227,255,28,35
3513642.68700955,5404815.34800957,229.596688598472,255,243,0,35
3513666.55859507,5404843.7871372,229.974160598472,255,219,0,35
3513687.55859874,5404869.14164585,230.078683598472,255,199,0,35
3513706.90080471,5404892.66088713,230.014871598472,255,183,0,35
3513730.35962372,5404921.29526109,229.794320598472,255,163,0,35
3513751.52189425,5404947.16697592,229.518624598472,255,147,0,35
3513770.71597548,5404970.67206093,229.248177598472,255,131,0,35
3513792.36059891,5404997.27436556,228.942880598472,255,116,0,35
3513812.40558416,5405022.03087401,228.652657598472,255,104,0,35
3513829.66306963,5405043.43155266,228.389962598472,255,96,0,35
3513849.34897898,5405067.90563559,228.051797598472,255,84,0,35
3513869.35029332,5405092.78419066,227.650247598472,255,68,0,35
3513894.28806859,5405123.68057093,227.074380598472,255,56,0,35
3513915.75158783,5405150.0147831,226.549539598472,255,44,0,35
3513934.22199477,5405172.38946599,226.110085598472,255,36,0,35
3513951.57424669,5405193.08114282,225.730569598472,255,28,0,35
3513972.23916659,5405217.24119255,225.349465598472,255,20,0,35
3513991.11664077,5405238.79690437,225.092568598472,255,20,0,35
3514014.66988682,5405264.79533981,224.910043598472,255,32,0,35
3514030.73516197,5405281.76555608,224.832101598472,255,52,0,35
3514044.64718383,5405295.57053611,224.696908598472,255,80,0,35
3514055.13932617,5405304.96093538,224.423928598472,255,112,0,35
3514065.21974145,5405312.68593554,223.840493598472,255,116,0,35
3514074.89895141,5405318.88520434,222.901772598472,255,88,0,35
3514085.61742449,5405324.85660089,221.725045598472,251,0,0,35
3514094.40481017,5405329.94307453,220.938088598472,155,0,0,35
3514103.59978634,5405336.16599604,220.422860598472,151,0,0,35
3514113.05337267,5405343.38949486,220.179086598472,175,0,0,35
3514121.49411338,5405350.18884275,220.122689598472,191,0,0,35
3514130.65301296,5405357.80370396,220.190255598472,211,0,0,35
3514140.05394105,5405365.86913361,220.398110598472,243,0,0,35
3514149.94360013,5405374.41708586,220.658334598472,255,8,0,35
3514159.3619584,5405382.42055175,220.828652598472,255,12,0,35
3514167.64905896,5405389.42566771,220.914163598472,255,8,0,35
3514177.04377157,5405397.52942962,221.024026598472,255,36,0,35
3514186.77046376,5405406.17991942,221.248788598472,255,92,0,35
3514199.86782083,5405418.12271254,221.628579598472,255,124,0,35
3514212.31072936,5405429.26361121,221.823037598472,255,143,0,35
3514223.77272522,5405438.95922605,221.723641598472,255,175,0,35
3514235.71413241,5405448.34599786,221.292092598472,255,171,0,35
3514246.90820551,5405456.48066034,220.576608598472,255,171,0,35
3514256.92906118,5405463.35129873,219.687600598472,255,163,0,35
3514266.53990806,5405469.73218083,218.676370598472,255,139,0,35
3514276.18960339,5405476.33904011,217.478677598472,255,135,0,35
3514279.87843804,5405479.04904099,216.847817598472,255,155,0,35
3514283.02243985,5405481.47108678,216.092080598472,255,147,0,35
3514286.41088848,5405484.33231659,215.054208598472,255,116,0,35
3514291.51894301,5405489.3357476,213.309304598472,255,100,0,35
3514294.60786827,5405492.71711809,212.206185598472,255,44,0,35
3514296.82828963,5405495.19061296,211.503549598472,255,16,0,35
3514301.25547105,5405500.03867848,210.670144598472,255,40,0,35
3514305.36897989,5405504.75710303,210.298867598472,255,116,0,35
3514312.08321334,5405512.78507017,209.859719598472,255,151,0,35
3514318.73375061,5405520.25354613,209.546548598472,255,199,0,35
3514321.4363198,5405523.05072621,209.488473598472,255,255,0,35
3514326.72822916,5405528.22109806,209.525002598472,243,255,12,35
3514334.6061836,5405535.54869714,209.773477598472,255,255,0,35
3514343.20436871,5405543.35725612,210.183633598472,255,243,0,35
3514350.7244564,5405550.1025669,210.662393598472,251,255,4,35
3514360.43612963,5405558.56643709,211.306008598472,247,255,8,35
3514374.84170496,5405570.68013791,212.113076598472,247,255,8,35
3514390.92528003,5405583.64318005,212.751351598472,243,255,12,35
3514414.12411002,5405601.74138012,213.217904598472,255,223,0,35
3514442.68269627,5405623.59246459,213.493691598472,255,219,0,35
3514480.92325727,5405652.9047701,214.024301598472,255,175,0,35
3514514.0640581,5405679.01041,214.910806598472,255,143,0,35
3514546.07358707,5405704.6217964,216.195596598472,255,151,0,35
3514578.51970499,5405730.857947,217.919564598472,255,159,0,35
3514614.8573285,5405760.63411456,220.285775598472,255,167,0,35
3514640.91342143,5405782.31740258,222.183450598472,255,179,0,35
3514673.19433092,5405809.70069251,224.609200598472,255,195,0,35
3514711.55642236,5405842.97735684,227.377328598472,255,207,0,35
3514743.98717484,5405871.709955,229.454232598472,255,223,0,35
3514769.88928113,5405895.07538641,230.851357598472,255,223,0,35
3514799.75366733,5405922.50804654,232.081460598472,255,219,0,35
3514831.65375032,5405952.28439088,232.878976598472,255,223,0,35
3514865.18918744,5405984.00510916,233.087197598472,255,211,0,35
3514894.22631528,5406011.79754521,232.755532598472,255,195,0,35
3514927.7348187,5406044.17702538,231.840585598472,255,171,0,35
3514961.01752172,5406076.50403116,230.457284598472,255,151,0,35
3514994.22960598,5406108.82568414,228.804849598472,255,120,0,35
3515028.82363146,5406142.41843226,227.002938598472,255,96,0,35
3515061.23816998,5406173.70290101,225.435616598472,255,60,0,35
3515094.80329852,5406205.84622166,224.155465598472,255,44,0,35
3515128.47442236,5406237.79170798,223.352639598472,255,28,0,35
3515166.43013954,5406273.45381117,223.107278598472,255,32,0,35
3515193.98520692,5406299.20659064,223.187631598472,255,28,0,35
3513564.54929192,5404757.56274843,227.648782598472,223,255,32,36
3513591.60545304,5404786.72676658,228.640878598472,231,255,24,36
3513617.69831552,5404816.46805964,229.566049598472,251,255,4,36
3513647.84374839,5404851.96201991,230.279580598472,255,223,0,36
3513675.33960265,5404884.94727139,230.526620598472,255,203,0,36
3513693.83244608,5404907.33266695,230.508767598472,255,187,0,36
3513714.53085457,5404932.47085749,230.355416598472,255,171,0,36
3513732.78322514,5404954.66686157,230.147500598472,255,155,0,36
3513750.13047781,5404975.77648801,229.921853598472,255,143,0,36
3513771.15360387,5405001.38614907,229.640298598472,255,128,0,36
3513790.96933803,5405025.58021771,229.383218598472,255,116,0,36
3513809.47789339,5405048.27823932,229.140847598472,255,104,0,36
3513830.01938781,5405073.5640384,228.857675598472,255,92,0,36
3513853.12102597,5405102.04287008,228.508126598472,255,76,0,36
3513875.88585503,5405130.0530031,228.116921598472,255,64,0,36
3513892.34611295,5405150.1941478,227.812966598472,255,56,0,36
3513916.34907184,5405179.26079735,227.358834598472,255,44,0,36
3513936.3469355,5405203.10286116,227.004739598472,255,36,0,36
3513956.17545415,5405226.31740306,226.715005598472,255,32,0,36
3513981.7811342,5405255.55392087,226.479531598472,255,32,0,36
3514002.49422222,5405278.49916115,226.423806598472,255,48,0,36
3514018.77873583,5405295.99797509,226.417611598472,255,76,0,36
3514030.81906019,5405308.45365397,226.323525598472,255,124,0,36
3514040.9117367,5405318.1434069,225.927316598472,255,199,0,36
3514043.79419385,5405320.69302889,225.704293598472,255,231,0,36
3514049.47125014,5405324.98555596,225.036935598472,223,255,32,36
3514055.45800506,5405328.24091295,224.141702598472,219,255,36,36
3514059.81596779,5405329.92857177,223.425179598472,251,255,4,36
3514067.73121503,5405332.18938307,222.022408598472,255,195,0,36
3514071.39552722,5405332.9848782,221.369149598472,255,163,0,36
3514078.38355949,5405334.10301908,220.223367598472,255,76,0,36
3514080.00683624,5405334.32312728,219.991219598472,255,36,0,36
3514083.41030381,5405334.80598929,219.577981598472,255,4,0,36
3514084.08115723,5405334.91302404,219.505959598472,255,32,0,36
3514085.36796429,5405335.15194128,219.369149598472,255,72,0,36
3514087.6854007,5405335.7540922,219.142373598472,255,171,0,36
3514088.2347166,5405335.93466606,219.096597598472,255,223,0,36
3514089.24375798,5405336.31428341,219.014840598472,235,255,20,36
3514090.54282628,5405336.92799552,218.939523598472,255,235,0,36
3514091.69688111,5405337.58659478,218.908944598472,255,215,0,36
3514093.72360471,5405338.8716765,218.903787598472,255,207,0,36
3514096.02721718,5405340.44333446,218.958962598472,255,219,0,36
3514100.44784372,5405343.72595748,219.204781598472,255,231,0,36
3514102.56381126,5405345.4241522,219.405251598472,219,255,36,36
3514106.35277931,5405348.64825507,219.844491598472,171,255,84,36
3514113.08099226,5405354.56060821,220.564279598472,171,255,84,36
3514122.5319835,5405362.80834413,221.425088598472,179,255,76,36
3514131.72920827,5405371.01430418,222.302682598472,167,255,88,36
3514141.53721066,5405380.25882732,223.429452598472,88,255,167,36
3514142.38587315,5405381.08436742,223.536385598472,84,255,171,36
3514144.03676949,5405382.69106959,223.733651598472,60,255,195,36
3514147.28314622,5405385.60770828,224.036630598472,44,255,211,36
3514149.38753843,5405387.23633076,224.162972598472,60,255,195,36
3514151.44499289,5405388.7379003,224.246835598472,104,255,151,36
3514153.95404109,5405390.64964126,224.270089598472,92,255,163,36
3514157.385998,5405393.45942905,224.152352598472,76,255,179,36
3514161.05446091,5405396.54508041,223.913308598472,4,255,251,36
3514166.68161667,5405401.30665262,223.706765598472,4,255,251,36
3514171.63378244,5405405.64355064,223.847329598472,44,255,211,36
3514177.63003381,5405411.27381768,224.352273598472,36,255,219,36
3514183.22923057,5405416.94068456,225.171975598472,16,255,239,36
3514188.6036593,5405422.81022946,226.099099598472,0,251,255,36
3514194.2948648,5405429.49165315,227.053781598472,0,219,255,36
3514199.80636618,5405436.18569163,227.911904598472,0,179,255,36
3514206.26475425,5405443.6543373,228.685464598472,0,151,255,36
3514213.41851113,5405450.74732542,229.128335598472,0,143,255,36
3514217.51372712,5405454.16719787,229.194802598472,0,143,255,36
3514222.14064499,5405457.46795111,229.122933598472,0,143,255,36
3514229.72358033,5405461.84610881,228.770303598472,0,167,255,36
3514237.49397675,5405465.5340808,228.221383598472,0,203,255,36
3514244.68606588,5405468.54705572,227.603311598472,0,235,255,36
3514250.06635653,5405470.64765784,227.097299598472,4,255,251,36
3514258.71944141,5405473.86519875,226.280374598472,60,255,195,36
3514264.81979303,5405476.20765967,225.734414598472,120,255,135,36
3514269.70531399,5405478.38940229,225.291421598472,131,255,124,36
3514272.64561248,5405479.97003343,224.994088598472,112,255,143,36
3514274.63642213,5405481.20609144,224.758737598472,88,255,167,36
3514276.09085592,5405482.26243826,224.554727598472,60,255,195,36
3514277.6588935,5405483.6174387,224.210519598472,0,227,255,36
3514277.83946735,5405483.78730696,224.152566598472,0,223,255,36
3514278.19923621,5405484.11703793,224.030679598472,0,219,255,36
3514278.87474946,5405484.70416283,223.736611598472,0,183,255,36
3514279.26144495,5405485.03113608,223.495980598472,0,171,255,36
3514279.46929192,5405485.20652684,223.326180598472,0,175,255,36
3514279.55354369,5405485.27696175,223.248513598472,0,68,255,36
3514279.6079202,5405485.32167918,223.196969598472,0,0,251,36
3514279.65142141,5405485.3568931,223.155282598472,0,0,195,36
3514279.66972133,5405485.37138879,223.137612598472,0,0,171,36
3513550.46913421,5404770.82496745,227.286721598472,231,255,24,37
3513576.89673397,5404799.1881306,228.297830598472,223,255,32,37
3513609.77840138,5404836.53273074,229.502541598472,255,247,0,37
3513636.57163898,5404867.92216242,230.187936598472,255,227,0,37
3513664.5223821,5404901.25216382,230.518472598472,255,203,0,37
3513686.09932834,5404927.19154877,230.539956598472,255,183,0,37
3513713.00995274,5404959.64854905,230.361581598472,255,159,0,37
3513734.72811527,5404985.88314402,230.117013598472,255,143,0,37
